1152.000000 -1483.202501 2932.791061
1152.000000 -1482.366950 2930.973960
1152.000000 -1481.531399 2929.156860
1152.000000 -1480.695848 2927.339759
1152.000000 -1479.860298 2925.522658
1152.000000 -1479.024747 2923.705558
1152.000000 -1478.189196 2921.888457
1152.000000 -1477.353645 2920.071357
1152.000000 -1476.518094 2918.254256
1152.000000 -1475.682543 2916.437155
1152.000000 -1474.846993 2914.620055
1152.000000 -1474.011442 2912.802954
1152.000000 -1473.175891 2910.985853
1152.000000 -1472.340340 2909.168753
1152.000000 -1471.504789 2907.351652
1152.000000 -1470.669238 2905.534551
1152.000000 -1469.833688 2903.717451
1152.000000 -1468.998137 2901.900350
1152.000000 -1468.162586 2900.083249
1152.000000 -1467.327035 2898.266149
1152.000000 -1466.491484 2896.449048
1152.000000 -1465.655933 2894.631947
1152.000000 -1464.820383 2892.814847
1152.000000 -1463.984832 2890.997746
1152.000000 -1463.149281 2889.180645
1152.000000 -1462.313730 2887.363545
1152.000000 -1461.478179 2885.546444
1152.000000 -1460.594183 2883.623988
1152.099950 -1460.231782 2881.659637
1152.199900 -1459.869381 2879.695286
1152.299850 -1459.506979 2877.730935
1152.399801 -1459.144578 2875.766584
1152.499751 -1458.782176 2873.802233
1152.599701 -1458.419775 2871.837882
1152.699651 -1458.057373 2869.873531
1152.799601 -1457.694972 2867.909180
1152.899551 -1457.332571 2865.944829
1152.999501 -1456.970169 2863.980478
1153.099451 -1456.607768 2862.016127
1153.199402 -1456.245366 2860.051775
1153.299352 -1455.882965 2858.087424
1153.399302 -1455.520563 2856.123073
1153.499252 -1455.158162 2854.158722
1153.599202 -1454.795760 2852.194371
1153.699152 -1454.433359 2850.230020
1153.799102 -1454.070958 2848.265669
1153.899052 -1453.708556 2846.301318
1153.999003 -1453.346155 2844.336967
1154.098953 -1452.983753 2842.372616
1154.198903 -1452.621352 2840.408265
1154.298853 -1452.258950 2838.443914
1154.398803 -1451.896549 2836.479562
1154.498753 -1451.534148 2834.515211
1154.598703 -1451.171746 2832.550860
1154.698653 -1450.809345 2830.586509
1154.798604 -1450.446943 2828.622158
1154.898554 -1450.084542 2826.657807
1154.998504 -1449.722140 2824.693456
1155.098454 -1449.359739 2822.729105
1155.198404 -1448.997338 2820.764754
1155.298354 -1448.634936 2818.800403
1155.398304 -1448.272535 2816.836052
1155.498254 -1447.910133 2814.871701
1155.598205 -1447.547732 2812.907350
1155.698155 -1447.185330 2810.942998
1155.798105 -1446.822929 2808.978647
1155.898055 -1446.460528 2807.014296
1155.998005 -1446.098126 2805.049945
1156.097955 -1445.735725 2803.085594
1156.197905 -1445.373323 2801.121243
1156.297855 -1445.010922 2799.156892
1156.397806 -1444.648520 2797.192541
1156.497756 -1444.286119 2795.228190
1156.597706 -1443.923717 2793.263839
1156.697656 -1443.561316 2791.299488
1156.797606 -1443.198915 2789.335137
1156.897556 -1442.836513 2787.370785
1156.997506 -1442.474112 2785.406434
1157.097457 -1442.111710 2783.442083
1157.197407 -1441.749309 2781.477732
1157.297357 -1441.386907 2779.513381
1157.397307 -1441.024506 2777.549030
1157.497257 -1440.662105 2775.584679
1157.597207 -1440.299703 2773.620328
1157.697157 -1439.937302 2771.655977
1157.797107 -1439.574900 2769.691626
1157.897058 -1439.212499 2767.727275
1157.997008 -1438.850097 2765.762924
1158.096958 -1438.487696 2763.798572
1158.196908 -1438.125295 2761.834221
1158.296858 -1437.762893 2759.869870
1158.396808 -1437.400492 2757.905519
1158.496758 -1437.038090 2755.941168
1158.596708 -1436.675689 2753.976817
1158.696659 -1436.313287 2752.012466
1158.796609 -1435.950886 2750.048115
1158.896559 -1435.588485 2748.083764
1158.996509 -1435.226083 2746.119413
1159.096459 -1434.863682 2744.155062
1159.196409 -1434.501280 2742.190711
1159.296359 -1434.138879 2740.226359
1159.396309 -1433.776477 2738.262008
1159.496260 -1433.414076 2736.297657
1159.596210 -1433.051675 2734.333306
1159.696160 -1432.689273 2732.368955
1159.796110 -1432.326872 2730.404604
1159.896060 -1431.964470 2728.440253
1159.996010 -1431.602069 2726.475902
1160.095960 -1431.239667 2724.511551
1160.195910 -1430.877266 2722.547200
1160.295861 -1430.514864 2720.582849
1160.395811 -1430.152463 2718.618498
1160.495761 -1429.790062 2716.654146
1160.595711 -1429.427660 2714.689795
1160.695661 -1429.065259 2712.725444
1160.795611 -1428.702857 2710.761093
1160.895561 -1428.340456 2708.796742
1160.995511 -1427.978054 2706.832391
1161.095462 -1427.615653 2704.868040
1161.195412 -1427.253252 2702.903689
1161.295362 -1426.890850 2700.939338
1161.395312 -1426.528449 2698.974987
1161.495262 -1426.166047 2697.010636
1161.595212 -1425.803646 2695.046285
1161.695162 -1425.441244 2693.081934
1161.795112 -1425.078843 2691.117582
1161.895063 -1424.716442 2689.153231
1161.995013 -1424.354040 2687.188880
1162.094963 -1423.991639 2685.224529
1162.194913 -1423.629237 2683.260178
1162.294863 -1423.266836 2681.295827
1162.394813 -1422.904434 2679.331476
1162.494763 -1422.542033 2677.367125
1162.594714 -1422.179632 2675.402774
1162.694664 -1421.817230 2673.438423
1162.794614 -1421.454829 2671.474072
1162.894564 -1421.092427 2669.509721
1162.994514 -1420.730026 2667.545369
1163.094464 -1420.367624 2665.581018
1163.194414 -1420.005223 2663.616667
1163.294364 -1419.642822 2661.652316
1163.394315 -1419.280420 2659.687965
1163.494265 -1418.918019 2657.723614
1163.594215 -1418.555617 2655.759263
1163.694165 -1418.193216 2653.794912
1163.794115 -1417.830814 2651.830561
1163.894065 -1417.468413 2649.866210
1163.994015 -1417.106011 2647.901859
1164.093965 -1416.743610 2645.937508
1164.193916 -1416.381209 2643.973156
1164.293866 -1416.018807 2642.008805
1164.393816 -1415.656406 2640.044454
1164.493766 -1415.294004 2638.080103
1164.593716 -1414.931603 2636.115752
1164.693666 -1414.569201 2634.151401
1164.793616 -1414.206800 2632.187050
1164.893566 -1413.844399 2630.222699
1164.993517 -1413.481997 2628.258348
1165.093467 -1413.119596 2626.293997
1165.193417 -1412.757194 2624.329646
1165.293367 -1412.394793 2622.365295
1165.393317 -1412.032391 2620.400943
1165.493267 -1411.669990 2618.436592
1165.593217 -1411.307589 2616.472241
1165.693167 -1410.945187 2614.507890
1165.793118 -1410.582786 2612.543539
1165.893068 -1410.220384 2610.579188
1165.993018 -1409.857983 2608.614837
1166.092968 -1409.495581 2606.650486
1166.192918 -1409.133180 2604.686135
1166.292868 -1408.770779 2602.721784
1166.392818 -1408.408377 2600.757433
1166.492768 -1408.045976 2598.793082
1166.592719 -1407.683574 2596.828730
1166.692669 -1407.321173 2594.864379
1166.792619 -1406.958771 2592.900028
1166.892569 -1406.596370 2590.935677
1166.992519 -1406.233968 2588.971326
1167.092469 -1405.871567 2587.006975
1167.192419 -1405.509166 2585.042624
1167.292370 -1405.146764 2583.078273
1167.392320 -1404.784363 2581.113922
1167.492270 -1404.421961 2579.149571
1167.592220 -1404.059560 2577.185220
1167.692170 -1403.697158 2575.220869
1167.792120 -1403.334757 2573.256517
1167.892070 -1402.972356 2571.292166
1167.992020 -1402.609954 2569.327815
1168.091971 -1402.247553 2567.363464
1168.191921 -1401.885151 2565.399113
1168.291871 -1401.522750 2563.434762
1168.391821 -1401.160348 2561.470411
1168.491771 -1400.797947 2559.506060
1168.591721 -1400.435546 2557.541709
1168.691671 -1400.073144 2555.577358
1168.791621 -1399.710743 2553.613007
1168.891572 -1399.348341 2551.648656
1168.991522 -1398.985940 2549.684305
1169.091472 -1398.623538 2547.719953
1169.191422 -1398.261137 2545.755602
1169.291372 -1397.898736 2543.791251
1169.391322 -1397.536334 2541.826900
1169.491272 -1397.173933 2539.862549
1169.591222 -1396.811531 2537.898198
1169.691173 -1396.449130 2535.933847
1169.791123 -1396.086728 2533.969496
1169.891073 -1395.724327 2532.005145
1169.991023 -1395.361926 2530.040794
1170.090973 -1394.999524 2528.076443
1170.190923 -1394.637123 2526.112092
1170.290873 -1394.274721 2524.147740
1170.390823 -1393.912320 2522.183389
1170.490774 -1393.549918 2520.219038
1170.590724 -1393.187517 2518.254687
1170.690674 -1392.825115 2516.290336
1170.790624 -1392.462714 2514.325985
1170.890574 -1392.100313 2512.361634
1170.990524 -1391.737911 2510.397283
1171.090474 -1391.375510 2508.432932
1171.190424 -1391.013108 2506.468581
1171.290375 -1390.650707 2504.504230
1171.390325 -1390.288305 2502.539879
1171.490275 -1389.925904 2500.575527
1171.590225 -1389.563503 2498.611176
1171.690175 -1389.201101 2496.646825
1171.790125 -1388.838700 2494.682474
1171.890075 -1388.476298 2492.718123
1171.990026 -1388.113897 2490.753772
1172.089976 -1387.751495 2488.789421
1172.189926 -1387.389094 2486.825070
1172.289876 -1387.026693 2484.860719
1172.389826 -1386.664291 2482.896368
1172.489776 -1386.301890 2480.932017
1172.589726 -1385.939488 2478.967666
1172.689676 -1385.577087 2477.003314
1172.789627 -1385.214685 2475.038963
1172.889577 -1384.852284 2473.074612
1172.989527 -1384.489883 2471.110261
1173.089477 -1384.127481 2469.145910
1173.189427 -1383.765080 2467.181559
1173.289377 -1383.402678 2465.217208
1173.389327 -1383.040277 2463.252857
1173.489277 -1382.677875 2461.288506
1173.589228 -1382.315474 2459.324155
1173.689178 -1381.953073 2457.359804
1173.789128 -1381.590671 2455.395453
1173.889078 -1381.228270 2453.431101
1173.989028 -1380.865868 2451.466750
1174.088978 -1380.503467 2449.502399
1174.188928 -1380.141065 2447.538048
1174.288878 -1379.778664 2445.573697
1174.388829 -1379.416262 2443.609346
1174.488779 -1379.053861 2441.644995
1174.588729 -1378.691460 2439.680644
1174.688679 -1378.329058 2437.716293
1174.788629 -1377.966657 2435.751942
1174.888579 -1377.604255 2433.787591
1174.988529 -1377.241854 2431.823240
1175.088479 -1376.879452 2429.858889
1175.188430 -1376.517051 2427.894537
1175.288380 -1376.154650 2425.930186
1175.388330 -1375.792248 2423.965835
1175.488280 -1375.429847 2422.001484
1175.588230 -1375.067445 2420.037133
1175.688180 -1374.705044 2418.072782
1175.788130 -1374.342642 2416.108431
1175.888080 -1373.980241 2414.144080
1175.988031 -1373.617840 2412.179729
1176.087981 -1373.255438 2410.215378
1176.187931 -1372.893037 2408.251027
1176.287881 -1372.530635 2406.286676
1176.387831 -1372.168234 2404.322324
1176.487781 -1371.805832 2402.357973
1176.587731 -1371.443431 2400.393622
1176.687682 -1371.081030 2398.429271
1176.787632 -1370.718628 2396.464920
1176.887582 -1370.356227 2394.500569
1176.987532 -1369.993825 2392.536218
1177.087482 -1369.631424 2390.571867
1177.187432 -1369.269022 2388.607516
1177.287382 -1368.906621 2386.643165
1177.387332 -1368.544219 2384.678814
1177.487283 -1368.181818 2382.714463
1177.587233 -1367.819417 2380.750111
1177.687183 -1367.457015 2378.785760
1177.787133 -1367.094614 2376.821409
1177.887083 -1366.732212 2374.857058
1177.987033 -1366.369811 2372.892707
1178.086983 -1366.007409 2370.928356
1178.186933 -1365.645008 2368.964005
1178.286884 -1365.282607 2366.999654
1178.386834 -1364.920205 2365.035303
1178.486784 -1364.557804 2363.070952
1178.586734 -1364.195402 2361.106601
1178.686684 -1363.833001 2359.142250
1178.786634 -1363.470599 2357.177898
1178.886584 -1363.108198 2355.213547
1178.986534 -1362.745797 2353.249196
1179.086485 -1362.383395 2351.284845
1179.186435 -1362.020994 2349.320494
1179.286385 -1361.658592 2347.356143
1179.386335 -1361.296191 2345.391792
1179.486285 -1360.933789 2343.427441
1179.586235 -1360.571388 2341.463090
1179.686185 -1360.208987 2339.498739
1179.786135 -1359.846585 2337.534388
1179.886086 -1359.484184 2335.570037
1179.986036 -1359.121782 2333.605685
1180.085986 -1358.759381 2331.641334
1180.185936 -1358.396979 2329.676983
1180.285886 -1358.034578 2327.712632
1180.385836 -1357.672177 2325.748281
1180.485786 -1357.309775 2323.783930
1180.585736 -1356.947374 2321.819579
1180.685687 -1356.584972 2319.855228
1180.785637 -1356.222571 2317.890877
1180.885587 -1355.860169 2315.926526
1180.985537 -1355.497768 2313.962175
1181.085487 -1355.135366 2311.997824
1181.185437 -1354.772965 2310.033472
1181.285387 -1354.410564 2308.069121
1181.385337 -1354.048162 2306.104770
1181.485288 -1353.685761 2304.140419
1181.585238 -1353.323359 2302.176068
1181.685188 -1352.960958 2300.211717
1181.785138 -1352.598556 2298.247366
1181.885088 -1352.236155 2296.283015
1181.985038 -1351.873754 2294.318664
1182.084988 -1351.511352 2292.354313
1182.184939 -1351.148951 2290.389962
1182.284889 -1350.786549 2288.425611
1182.384839 -1350.424148 2286.461260
1182.484789 -1350.061746 2284.496908
1182.584739 -1349.699345 2282.532557
1182.684689 -1349.336944 2280.568206
1182.784639 -1348.974542 2278.603855
1182.884589 -1348.612141 2276.639504
1182.984540 -1348.249739 2274.675153
1183.084490 -1347.887338 2272.710802
1183.184440 -1347.524936 2270.746451
1183.284390 -1347.162535 2268.782100
1183.384340 -1346.800134 2266.817749
1183.484290 -1346.437732 2264.853398
1183.584240 -1346.075331 2262.889047
1183.684190 -1345.712929 2260.924695
1183.784141 -1345.350528 2258.960344
1183.884091 -1344.988126 2256.995993
1183.984041 -1344.625725 2255.031642
1184.083991 -1344.263324 2253.067291
1184.183941 -1343.900922 2251.102940
1184.283891 -1343.538521 2249.138589
1184.383841 -1343.176119 2247.174238
1184.483791 -1342.813718 2245.209887
1184.583742 -1342.451316 2243.245536
1184.683692 -1342.088915 2241.281185
1184.783642 -1341.726513 2239.316834
1184.883592 -1341.364112 2237.352482
1184.983542 -1341.001711 2235.388131
1185.083492 -1340.639309 2233.423780
1185.183442 -1340.276908 2231.459429
1185.283392 -1339.914506 2229.495078
1185.383343 -1339.552105 2227.530727
1185.483293 -1339.189703 2225.566376
1185.583243 -1338.827302 2223.602025
1185.683193 -1338.464901 2221.637674
1185.783143 -1338.102499 2219.673323
1185.883093 -1337.740098 2217.708972
1185.983043 -1337.377696 2215.744621
1186.082993 -1337.015295 2213.780269
1186.182944 -1336.652893 2211.815918
1186.282894 -1336.290492 2209.851567
1186.382844 -1335.928091 2207.887216
1186.482794 -1335.565689 2205.922865
1186.582744 -1335.203288 2203.958514
1186.682694 -1334.840886 2201.994163
1186.782644 -1334.478485 2200.029812
1186.882595 -1334.116083 2198.065461
1186.982545 -1333.753682 2196.101110
1187.082495 -1333.391281 2194.136759
1187.182445 -1333.028879 2192.172408
1187.282395 -1332.666478 2190.208056
1187.382345 -1332.304076 2188.243705
1187.482295 -1331.941675 2186.279354
1187.582245 -1331.579273 2184.315003
1187.682196 -1331.216872 2182.350652
1187.782146 -1330.854471 2180.386301
1187.882096 -1330.492069 2178.421950
1187.982046 -1330.129668 2176.457599
1188.081996 -1329.767266 2174.493248
1188.181946 -1329.404865 2172.528897
1188.281896 -1329.042463 2170.564546
1188.381846 -1328.680062 2168.600195
1188.481797 -1328.317660 2166.635844
1188.581747 -1327.955259 2164.671492
1188.681697 -1327.592858 2162.707141
1188.781647 -1327.230456 2160.742790
1188.881597 -1326.868055 2158.778439
1188.981547 -1326.505653 2156.814088
1189.081497 -1326.143252 2154.849737
1189.181447 -1325.780850 2152.885386
1189.281398 -1325.418449 2150.921035
1189.381348 -1325.056048 2148.956684
1189.481298 -1324.693646 2146.992333
1189.581248 -1324.331245 2145.027982
1189.681198 -1323.968843 2143.063631
1189.781148 -1323.606442 2141.099279
1189.881098 -1323.244040 2139.134928
1189.981048 -1322.881639 2137.170577
1190.080999 -1322.519238 2135.206226
1190.180949 -1322.156836 2133.241875
1190.280899 -1321.794435 2131.277524
1190.380849 -1321.432033 2129.313173
1190.480799 -1321.069632 2127.348822
1190.580749 -1320.707230 2125.384471
1190.680699 -1320.344829 2123.420120
1190.780649 -1319.982428 2121.455769
1190.880600 -1319.620026 2119.491418
1190.980550 -1319.257625 2117.527066
1191.080500 -1318.895223 2115.562715
1191.180450 -1318.532822 2113.598364
1191.280400 -1318.170420 2111.634013
1191.380350 -1317.808019 2109.669662
1191.480300 -1317.445617 2107.705311
1191.580251 -1317.083216 2105.740960
1191.680201 -1316.720815 2103.776609
1191.780151 -1316.358413 2101.812258
1191.880101 -1315.996012 2099.847907
1191.980051 -1315.633610 2097.883556
1192.080001 -1315.271209 2095.919205
1192.179951 -1314.908807 2093.954853
1192.279901 -1314.546406 2091.990502
1192.379852 -1314.184005 2090.026151
1192.479802 -1313.821603 2088.061800
1192.579752 -1313.459202 2086.097449
1192.679702 -1313.096800 2084.133098
1192.779652 -1312.734399 2082.168747
1192.879602 -1312.371997 2080.204396
1192.979552 -1312.009596 2078.240045
1193.079502 -1311.647195 2076.275694
1193.179453 -1311.284793 2074.311343
1193.279403 -1310.922392 2072.346992
1193.379353 -1310.559990 2070.382640
1193.479303 -1310.197589 2068.418289
1193.579253 -1309.835187 2066.453938
1193.679203 -1309.472786 2064.489587
1193.779153 -1309.110385 2062.525236
1193.879103 -1308.747983 2060.560885
1193.979054 -1308.385582 2058.596534
1194.079004 -1308.023180 2056.632183
1194.178954 -1307.660779 2054.667832
1194.278904 -1307.298377 2052.703481
1194.378854 -1306.935976 2050.739130
1194.478804 -1306.573575 2048.774779
1194.578754 -1306.211173 2046.810428
1194.678704 -1305.848772 2044.846076
1194.778655 -1305.486370 2042.881725
1194.878605 -1305.123969 2040.917374
1194.978555 -1304.761567 2038.953023
1195.078505 -1304.399166 2036.988672
1195.178455 -1304.036764 2035.024321
1195.278405 -1303.674363 2033.059970
1195.378355 -1303.311962 2031.095619
1195.478305 -1302.949560 2029.131268
1195.578256 -1302.587159 2027.166917
1195.678206 -1302.224757 2025.202566
1195.778156 -1301.862356 2023.238215
1195.878106 -1301.499954 2021.273863
1195.978056 -1301.137553 2019.309512
1196.078006 -1300.775152 2017.345161
1196.177956 -1300.412750 2015.380810
1196.277907 -1300.050349 2013.416459
1196.377857 -1299.687947 2011.452108
1196.477807 -1299.325546 2009.487757
1196.577757 -1298.963144 2007.523406
1196.677707 -1298.600743 2005.559055
1196.777657 -1298.238342 2003.594704
1196.877607 -1297.875940 2001.630353
1196.977557 -1297.513539 1999.666002
1197.077508 -1297.151137 1997.701650
1197.177458 -1296.788736 1995.737299
1197.277408 -1296.426334 1993.772948
1197.377358 -1296.063933 1991.808597
1197.477308 -1295.701532 1989.844246
1197.577258 -1295.339130 1987.879895
1197.677208 -1294.976729 1985.915544
1197.777158 -1294.614327 1983.951193
1197.877109 -1294.251926 1981.986842
1197.977059 -1293.889524 1980.022491
1198.077009 -1293.527123 1978.058140
1198.176959 -1293.164722 1976.093789
1198.276909 -1292.802320 1974.129437
1198.376859 -1292.439919 1972.165086
1198.476809 -1292.077517 1970.200735
1198.576759 -1291.715116 1968.236384
1198.676710 -1291.352714 1966.272033
1198.776660 -1290.990313 1964.307682
1198.876610 -1290.627911 1962.343331
1198.976560 -1290.265510 1960.378980
1199.076510 -1289.903109 1958.414629
1199.176460 -1289.540707 1956.450278
1199.276410 -1289.178306 1954.485927
1199.376360 -1288.815904 1952.521576
1199.476311 -1288.453503 1950.557224
1199.576261 -1288.091101 1948.592873
1199.676211 -1287.728700 1946.628522
1199.776161 -1287.366299 1944.664171
1199.876111 -1287.003897 1942.699820
1199.976061 -1286.641496 1940.735469
1200.076011 -1286.279094 1938.771118
1200.175961 -1285.916693 1936.806767
1200.275912 -1285.554291 1934.842416
1200.375862 -1285.191890 1932.878065
1200.475812 -1284.829489 1930.913714
1200.575762 -1284.467087 1928.949363
1200.675712 -1284.104686 1926.985011
1200.775662 -1283.742284 1925.020660
1200.875612 -1283.379883 1923.056309
1200.975562 -1283.017481 1921.091958
1201.075513 -1282.655080 1919.127607
1201.175463 -1282.292679 1917.163256
1201.275413 -1281.930277 1915.198905
1201.375363 -1281.567876 1913.234554
1201.475313 -1281.205474 1911.270203
1201.575263 -1280.843073 1909.305852
1201.675213 -1280.480671 1907.341501
1201.775164 -1280.118270 1905.377150
1201.875114 -1279.755868 1903.412799
1201.975064 -1279.393467 1901.448447
1202.075014 -1279.031066 1899.484096
1202.174964 -1278.668664 1897.519745
1202.274914 -1278.306263 1895.555394
1202.374864 -1277.943861 1893.591043
1202.474814 -1277.581460 1891.626692
1202.574765 -1277.219058 1889.662341
1202.674715 -1276.856657 1887.697990
1202.774665 -1276.494256 1885.733639
1202.874615 -1276.131854 1883.769288
1202.974565 -1275.769453 1881.804937
1203.074515 -1275.407051 1879.840586
1203.174465 -1275.044650 1877.876234
1203.274415 -1274.682248 1875.911883
1203.374366 -1274.319847 1873.947532
1203.474316 -1273.957446 1871.983181
1203.574266 -1273.595044 1870.018830
1203.674216 -1273.232643 1868.054479
1203.774166 -1272.870241 1866.090128
1203.874116 -1272.507840 1864.125777
1203.974066 -1272.145438 1862.161426
1204.074016 -1271.783037 1860.197075
1204.173967 -1271.420636 1858.232724
1204.273917 -1271.058234 1856.268373
1204.373867 -1270.695833 1854.304021
1204.473817 -1270.333431 1852.339670
1204.573767 -1269.971030 1850.375319
1204.673717 -1269.608628 1848.410968
1204.773667 -1269.246227 1846.446617
1204.873617 -1268.883826 1844.482266
1204.973568 -1268.521424 1842.517915
1205.073518 -1268.159023 1840.553564
1205.173468 -1267.796621 1838.589213
1205.273418 -1267.434220 1836.624862
1205.373368 -1267.071818 1834.660511
1205.473318 -1266.709417 1832.696160
1205.573268 -1266.347015 1830.731808
1205.673218 -1265.984614 1828.767457
1205.773169 -1265.622213 1826.803106
1205.873119 -1265.259811 1824.838755
1205.973069 -1264.897410 1822.874404
1206.073019 -1264.535008 1820.910053
1206.172969 -1264.172607 1818.945702
1206.272919 -1263.810205 1816.981351
1206.372869 -1263.447804 1815.017000
1206.472820 -1263.085403 1813.052649
1206.572770 -1262.723001 1811.088298
1206.672720 -1262.360600 1809.123947
1206.772670 -1261.998198 1807.159595
1206.872620 -1261.635797 1805.195244
1206.972570 -1261.273395 1803.230893
1207.072520 -1260.910994 1801.266542
1207.172470 -1260.548593 1799.302191
1207.272421 -1260.186191 1797.337840
1207.372371 -1259.823790 1795.373489
1207.472321 -1259.461388 1793.409138
1207.572271 -1259.098987 1791.444787
1207.672221 -1258.736585 1789.480436
1207.772171 -1258.374184 1787.516085
1207.872121 -1258.011783 1785.551734
1207.972071 -1257.649381 1783.587383
1208.072022 -1257.286980 1781.623031
1208.171972 -1256.924578 1779.658680
1208.271922 -1256.562177 1777.694329
1208.371872 -1256.199775 1775.729978
1208.471822 -1255.837374 1773.765627
1208.571772 -1255.474973 1771.801276
1208.671722 -1255.112571 1769.836925
1208.771672 -1254.750170 1767.872574
1208.871623 -1254.387768 1765.908223
1208.971573 -1254.025367 1763.943872
1209.071523 -1253.662965 1761.979521
1209.171473 -1253.300564 1760.015170
1209.271423 -1252.938162 1758.050818
1209.371373 -1252.575761 1756.086467
1209.471323 -1252.213360 1754.122116
1209.571273 -1251.850958 1752.157765
1209.671224 -1251.488557 1750.193414
1209.771174 -1251.126155 1748.229063
1209.871124 -1250.763754 1746.264712
1209.971074 -1250.401352 1744.300361
1210.071024 -1250.038951 1742.336010
1210.170974 -1249.676550 1740.371659
1210.270924 -1249.314148 1738.407308
1210.370874 -1248.951747 1736.442957
1210.470825 -1248.589345 1734.478605
1210.570775 -1248.226944 1732.514254
1210.670725 -1247.864542 1730.549903
1210.770675 -1247.502141 1728.585552
1210.870625 -1247.139740 1726.621201
1210.970575 -1246.777338 1724.656850
1211.070525 -1246.414937 1722.692499
1211.170476 -1246.052535 1720.728148
1211.270426 -1245.690134 1718.763797
1211.370376 -1245.327732 1716.799446
1211.470326 -1244.965331 1714.835095
1211.570276 -1244.602930 1712.870744
1211.670226 -1244.240528 1710.906392
1211.770176 -1243.878127 1708.942041
1211.870126 -1243.515725 1706.977690
1211.970077 -1243.153324 1705.013339
1212.070027 -1242.790922 1703.048988
1212.169977 -1242.428521 1701.084637
1212.269927 -1242.066120 1699.120286
1212.369877 -1241.703718 1697.155935
1212.469827 -1241.341317 1695.191584
1212.569777 -1240.978915 1693.227233
1212.669727 -1240.616514 1691.262882
1212.769678 -1240.254112 1689.298531
1212.869628 -1239.891711 1687.334179
1212.969578 -1239.529309 1685.369828
1213.069528 -1239.166908 1683.405477
1213.169478 -1238.804507 1681.441126
1213.269428 -1238.442105 1679.476775
1213.369378 -1238.079704 1677.512424
1213.469328 -1237.717302 1675.548073
1213.569279 -1237.354901 1673.583722
1213.669229 -1236.992499 1671.619371
1213.769179 -1236.630098 1669.655020
1213.869129 -1236.267697 1667.690669
1213.969079 -1235.905295 1665.726318
1214.069029 -1235.542894 1663.761967
1214.168979 -1235.180492 1661.797615
1214.268929 -1234.818091 1659.833264
1214.368880 -1234.455689 1657.868913
1214.468830 -1234.093288 1655.904562
1214.568780 -1233.730887 1653.940211
1214.668730 -1233.368485 1651.975860
1214.768680 -1233.006084 1650.011509
1214.868630 -1232.643682 1648.047158
1214.968580 -1232.281281 1646.082807
1215.068530 -1231.918879 1644.118456
1215.168481 -1231.556478 1642.154105
1215.268431 -1231.194077 1640.189754
1215.368381 -1230.831675 1638.225402
1215.468331 -1230.469274 1636.261051
1215.568281 -1230.106872 1634.296700
1215.668231 -1229.744471 1632.332349
1215.768181 -1229.382069 1630.367998
1215.868132 -1229.019668 1628.403647
1215.968082 -1228.657266 1626.439296
1216.068032 -1228.294865 1624.474945
1216.167982 -1227.932464 1622.510594
1216.267932 -1227.570062 1620.546243
1216.367882 -1227.207661 1618.581892
1216.467832 -1226.845259 1616.617541
1216.567782 -1226.482858 1614.653189
1216.667733 -1226.120456 1612.688838
1216.767683 -1225.758055 1610.724487
1216.867633 -1225.395654 1608.760136
1216.967583 -1225.033252 1606.795785
1217.067533 -1224.670851 1604.831434
1217.167483 -1224.308449 1602.867083
1217.267433 -1223.946048 1600.902732
1217.367383 -1223.583646 1598.938381
1217.467334 -1223.221245 1596.974030
1217.567284 -1222.858844 1595.009679
1217.667234 -1222.496442 1593.045328
1217.767184 -1222.134041 1591.080976
1217.867134 -1221.771639 1589.116625
1217.967084 -1221.409238 1587.152274
1218.067034 -1221.046836 1585.187923
1218.166984 -1220.684435 1583.223572
1218.266935 -1220.322034 1581.259221
1218.366885 -1219.959632 1579.294870
1218.466835 -1219.597231 1577.330519
1218.566785 -1219.234829 1575.366168
1218.666735 -1218.872428 1573.401817
1218.766685 -1218.510026 1571.437466
1218.866635 -1218.147625 1569.473115
1218.966585 -1217.785224 1567.508763
1219.066536 -1217.422822 1565.544412
1219.166486 -1217.060421 1563.580061
1219.266436 -1216.698019 1561.615710
1219.366386 -1216.335618 1559.651359
1219.466336 -1215.973216 1557.687008
1219.566286 -1215.610815 1555.722657
1219.666236 -1215.248413 1553.758306
1219.766186 -1214.886012 1551.793955
1219.866137 -1214.523611 1549.829604
1219.966087 -1214.161209 1547.865253
1220.066037 -1213.798808 1545.900902
1220.165987 -1213.436406 1543.936550
1220.265937 -1213.074005 1541.972199
1220.365887 -1212.711603 1540.007848
1220.465837 -1212.349202 1538.043497
1220.565787 -1211.986801 1536.079146
1220.665738 -1211.624399 1534.114795
1220.765688 -1211.261998 1532.150444
1220.865638 -1210.899596 1530.186093
1220.965588 -1210.537195 1528.221742
1221.065538 -1210.174793 1526.257391
1221.165488 -1209.812392 1524.293040
1221.265438 -1209.449991 1522.328689
1221.365389 -1209.087589 1520.364338
1221.465339 -1208.725188 1518.399986
1221.565289 -1208.362786 1516.435635
1221.665239 -1208.000385 1514.471284
1221.765189 -1207.637983 1512.506933
1221.865139 -1207.275582 1510.542582
1221.965089 -1206.913181 1508.578231
1222.065039 -1206.550779 1506.613880
1222.164990 -1206.188378 1504.649529
1222.264940 -1205.825976 1502.685178
1222.364890 -1205.463575 1500.720827
1222.464840 -1205.101173 1498.756476
1222.564790 -1204.738772 1496.792125
1222.664740 -1204.376371 1494.827773
1222.764690 -1204.013969 1492.863422
1222.864640 -1203.651568 1490.899071
1222.964591 -1203.289166 1488.934720
1223.064541 -1202.926765 1486.970369
1223.164491 -1202.564363 1485.006018
1223.264441 -1202.201962 1483.041667
1223.364391 -1201.839560 1481.077316
1223.464341 -1201.477159 1479.112965
1223.564291 -1201.114758 1477.148614
1223.664241 -1200.752356 1475.184263
1223.764192 -1200.389955 1473.219912
1223.864142 -1200.027553 1471.255560
1223.964092 -1199.665152 1469.291209
1224.064042 -1199.302750 1467.326858
1224.163992 -1198.940349 1465.362507
1224.263942 -1198.577948 1463.398156
1224.363892 -1198.215546 1461.433805
1224.463842 -1197.853145 1459.469454
1224.563793 -1197.490743 1457.505103
1224.663743 -1197.128342 1455.540752
1224.763693 -1196.765940 1453.576401
1224.863643 -1196.403539 1451.612050
1224.963593 -1196.041138 1449.647699
1225.063543 -1195.678736 1447.683347
1225.163493 -1195.316335 1445.718996
1225.263443 -1194.953933 1443.754645
1225.363394 -1194.591532 1441.790294
1225.463344 -1194.229130 1439.825943
1225.563294 -1193.866729 1437.861592
1225.663244 -1193.504328 1435.897241
1225.763194 -1193.141926 1433.932890
1225.863144 -1192.779525 1431.968539
1225.963094 -1192.417123 1430.004188
1226.063045 -1192.054722 1428.039837
1226.162995 -1191.692320 1426.075486
1226.262945 -1191.329919 1424.111134
1226.362895 -1190.967517 1422.146783
1226.462845 -1190.605116 1420.182432
1226.562795 -1190.242715 1418.218081
1226.662745 -1189.880313 1416.253730
1226.762695 -1189.517912 1414.289379
1226.862646 -1189.155510 1412.325028
1226.962596 -1188.793109 1410.360677
1227.062546 -1188.430707 1408.396326
1227.162496 -1188.068306 1406.431975
1227.262446 -1187.705905 1404.467624
1227.362396 -1187.343503 1402.503273
1227.462346 -1186.981102 1400.538922
1227.562296 -1186.618700 1398.574570
1227.662247 -1186.256299 1396.610219
1227.762197 -1185.893897 1394.645868
1227.862147 -1185.531496 1392.681517
1227.962097 -1185.169095 1390.717166
1228.062047 -1184.806693 1388.752815
1228.161997 -1184.444292 1386.788464
1228.261947 -1184.081890 1384.824113
1228.361897 -1183.719489 1382.859762
1228.461848 -1183.357087 1380.895411
1228.561798 -1182.994686 1378.931060
1228.661748 -1182.632285 1376.966709
1228.761698 -1182.269883 1375.002357
1228.861648 -1181.907482 1373.038006
1228.961598 -1181.545080 1371.073655
1229.061548 -1181.182679 1369.109304
1229.161498 -1180.820277 1367.144953
1229.261449 -1180.457876 1365.180602
1229.361399 -1180.095475 1363.216251
1229.461349 -1179.733073 1361.251900
1229.561299 -1179.370672 1359.287549
1229.661249 -1179.008270 1357.323198
1229.761199 -1178.645869 1355.358847
1229.861149 -1178.283467 1353.394496
1229.961099 -1177.921066 1351.430144
1230.061050 -1177.558664 1349.465793
1230.161000 -1177.196263 1347.501442
1230.260950 -1176.833862 1345.537091
1230.360900 -1176.471460 1343.572740
1230.460850 -1176.109059 1341.608389
1230.560800 -1175.746657 1339.644038
1230.660750 -1175.384256 1337.679687
1230.760701 -1175.021854 1335.715336
1230.860651 -1174.659453 1333.750985
1230.960601 -1174.297052 1331.786634
1231.060551 -1173.934650 1329.822283
1231.160501 -1173.572249 1327.857931
1231.260451 -1173.209847 1325.893580
1231.360401 -1172.847446 1323.929229
1231.460351 -1172.485044 1321.964878
1231.560302 -1172.122643 1320.000527
1231.660252 -1171.760242 1318.036176
1231.760202 -1171.397840 1316.071825
1231.860152 -1171.035439 1314.107474
1231.960102 -1170.673037 1312.143123
1232.060052 -1170.310636 1310.178772
1232.160002 -1169.948234 1308.214421
1232.259952 -1169.585833 1306.250070
1232.359903 -1169.223432 1304.285718
1232.459853 -1168.861030 1302.321367
1232.559803 -1168.498629 1300.357016
1232.659753 -1168.136227 1298.392665
1232.759703 -1167.773826 1296.428314
1232.859653 -1167.411424 1294.463963
1232.959603 -1167.049023 1292.499612
1233.059553 -1166.686622 1290.535261
1233.159504 -1166.324220 1288.570910
1233.259454 -1165.961819 1286.606559
1233.359404 -1165.599417 1284.642208
1233.459354 -1165.237016 1282.677857
1233.559304 -1164.874614 1280.713505
1233.659254 -1164.512213 1278.749154
1233.759204 -1164.149811 1276.784803
1233.859154 -1163.787410 1274.820452
1233.959105 -1163.425009 1272.856101
1234.059055 -1163.062607 1270.891750
1234.159005 -1162.700206 1268.927399
1234.258955 -1162.337804 1266.963048
1234.358905 -1161.975403 1264.998697
1234.458855 -1161.613001 1263.034346
1234.558805 -1161.250600 1261.069995
1234.658755 -1160.888199 1259.105644
1234.758706 -1160.525797 1257.141293
1234.858656 -1160.163396 1255.176941
1234.958606 -1159.800994 1253.212590
1235.058556 -1159.438593 1251.248239
1235.158506 -1159.076191 1249.283888
1235.258456 -1158.713790 1247.319537
1235.358406 -1158.351389 1245.355186
1235.458357 -1157.988987 1243.390835
1235.558307 -1157.626586 1241.426484
1235.658257 -1157.264184 1239.462133
1235.758207 -1156.901783 1237.497782
1235.858157 -1156.539381 1235.533431
1235.958107 -1156.176980 1233.569080
1236.058057 -1155.814579 1231.604728
1236.158007 -1155.452177 1229.640377
1236.257958 -1155.089776 1227.676026
1236.357908 -1154.727374 1225.711675
1236.457858 -1154.364973 1223.747324
1236.557808 -1154.002571 1221.782973
1236.657758 -1153.640170 1219.818622
1236.757708 -1153.277768 1217.854271
1236.857658 -1152.915367 1215.889920
1236.957608 -1152.552966 1213.925569
1237.057559 -1152.190564 1211.961218
1237.157509 -1151.828163 1209.996867
1237.257459 -1151.465761 1208.032515
1237.357409 -1151.103360 1206.068164
1237.457359 -1150.740958 1204.103813
1237.557309 -1150.378557 1202.139462
1237.657259 -1150.016156 1200.175111
1237.757209 -1149.653754 1198.210760
1237.857160 -1149.291353 1196.246409
1237.957110 -1148.928951 1194.282058
1238.057060 -1148.566550 1192.317707
1238.157010 -1148.204148 1190.353356
1238.256960 -1147.841747 1188.389005
1238.356910 -1147.479346 1186.424654
1238.456860 -1147.116944 1184.460302
1238.556810 -1146.754543 1182.495951
1238.656761 -1146.392141 1180.531600
1238.756711 -1146.029740 1178.567249
1238.856661 -1145.667338 1176.602898
1238.956611 -1145.304937 1174.638547
1239.056561 -1144.942536 1172.674196
1239.156511 -1144.580134 1170.709845
1239.256461 -1144.217733 1168.745494
1239.356411 -1143.855331 1166.781143
1239.456362 -1143.492930 1164.816792
1239.556312 -1143.130528 1162.852441
1239.656262 -1142.768127 1160.888089
1239.756212 -1142.405726 1158.923738
1239.856162 -1142.043324 1156.959387
1239.956112 -1141.680923 1154.995036
1240.056062 -1141.318521 1153.030685
1240.156012 -1140.956120 1151.066334
1240.255963 -1140.593718 1149.101983
1240.355913 -1140.231317 1147.137632
1240.455863 -1139.868915 1145.173281
1240.555813 -1139.506514 1143.208930
1240.655763 -1139.144113 1141.244579
1240.755713 -1138.781711 1139.280228
1240.855663 -1138.419310 1137.315877
1240.955614 -1138.056908 1135.351525
1241.055564 -1137.694507 1133.387174
1241.155514 -1137.332105 1131.422823
1241.255464 -1136.969704 1129.458472
1241.355414 -1136.607303 1127.494121
1241.455364 -1136.244901 1125.529770
1241.555314 -1135.882500 1123.565419
1241.655264 -1135.520098 1121.601068
1241.755215 -1135.157697 1119.636717
1241.855165 -1134.795295 1117.672366
1241.955115 -1134.432894 1115.708015
1242.055065 -1134.070493 1113.743664
1242.155015 -1133.708091 1111.779312
1242.254965 -1133.345690 1109.814961
1242.354915 -1132.983288 1107.850610
1242.454865 -1132.620887 1105.886259
1242.554816 -1132.258485 1103.921908
1242.654766 -1131.896084 1101.957557
1242.754716 -1131.533683 1099.993206
1242.854666 -1131.171281 1098.028855
1242.954616 -1130.808880 1096.064504
1243.054566 -1130.446478 1094.100153
1243.154516 -1130.084077 1092.135802
1243.254466 -1129.721675 1090.171451
1243.354417 -1129.359274 1088.207099
1243.454367 -1128.996873 1086.242748
1243.554317 -1128.634471 1084.278397
1243.654267 -1128.272070 1082.314046
1243.754217 -1127.909668 1080.349695
1243.854167 -1127.547267 1078.385344
1243.954117 -1127.184865 1076.420993
1244.054067 -1126.822464 1074.456642
1244.154018 -1126.460062 1072.492291
1244.253968 -1126.097661 1070.527940
1244.353918 -1125.735260 1068.563589
1244.453868 -1125.372858 1066.599238
1244.553818 -1125.010457 1064.634886
1244.653768 -1124.648055 1062.670535
1244.753718 -1124.285654 1060.706184
1244.853668 -1123.923252 1058.741833
1244.953619 -1123.560851 1056.777482
1245.053569 -1123.198450 1054.813131
1245.153519 -1122.836048 1052.848780
1245.253469 -1122.473647 1050.884429
1245.353419 -1122.111245 1048.920078
1245.453369 -1121.748844 1046.955727
1245.553319 -1121.386442 1044.991376
1245.653270 -1121.024041 1043.027025
1245.753220 -1120.661640 1041.062673
1245.853170 -1120.299238 1039.098322
1245.953120 -1119.936837 1037.133971
1246.053070 -1119.574435 1035.169620
1246.153020 -1119.212034 1033.205269
1246.252970 -1118.849632 1031.240918
1246.352920 -1118.487231 1029.276567
1246.452871 -1118.124830 1027.312216
1246.552821 -1117.762428 1025.347865
1246.652771 -1117.400027 1023.383514
1246.752721 -1117.037625 1021.419163
1246.852671 -1116.675224 1019.454812
1246.952621 -1116.312822 1017.490461
1247.052571 -1115.950421 1015.526109
1247.152521 -1115.588020 1013.561758
1247.252472 -1115.225618 1011.597407
1247.352422 -1114.863217 1009.633056
1247.452372 -1114.500815 1007.668705
1247.552322 -1114.138414 1005.704354
1247.652272 -1113.776012 1003.740003
1247.752222 -1113.413611 1001.775652
1247.852172 -1113.051209 999.811301
1247.952122 -1112.688808 997.846950
1248.052073 -1112.326407 995.882599
1248.152023 -1111.964005 993.918248
1248.251973 -1111.601604 991.953896
1248.351923 -1111.239202 989.989545
1248.451873 -1110.876801 988.025194
1248.551823 -1110.514399 986.060843
1248.651773 -1110.151998 984.096492
1248.751723 -1109.789597 982.132141
1248.851674 -1109.427195 980.167790
1248.951624 -1109.064794 978.203439
1249.051574 -1108.702392 976.239088
1249.151524 -1108.339991 974.274737
1249.251474 -1107.977589 972.310386
1249.351424 -1107.615188 970.346035
1249.451374 -1107.252787 968.381683
1249.551324 -1106.890385 966.417332
1249.651275 -1106.527984 964.452981
1249.751225 -1106.165582 962.488630
1249.851175 -1105.803181 960.524279
1249.951125 -1105.440779 958.559928
1250.051075 -1105.078378 956.595577
1250.151025 -1104.715977 954.631226
1250.250975 -1104.353575 952.666875
1250.350926 -1103.991174 950.702524
1250.450876 -1103.628772 948.738173
1250.550826 -1103.266371 946.773822
1250.650776 -1102.903969 944.809470
1250.750726 -1102.541568 942.845119
1250.850676 -1102.179166 940.880768
1250.950626 -1101.816765 938.916417
1251.050576 -1101.454364 936.952066
1251.150527 -1101.091962 934.987715
1251.250477 -1100.729561 933.023364
1251.350427 -1100.367159 931.059013
1251.450377 -1100.004758 929.094662
1251.550327 -1099.642356 927.130311
1251.650277 -1099.279955 925.165960
1251.750227 -1098.917554 923.201609
1251.850177 -1098.555152 921.237257
1251.950128 -1098.192751 919.272906
1252.050078 -1097.830349 917.308555
1252.150028 -1097.467948 915.344204
1252.249978 -1097.105546 913.379853
1252.349928 -1096.743145 911.415502
1252.449878 -1096.380744 909.451151
1252.549828 -1096.018342 907.486800
1252.649778 -1095.655941 905.522449
1252.749729 -1095.293539 903.558098
1252.849679 -1094.931138 901.593747
1252.949629 -1094.568736 899.629396
1253.049579 -1094.206335 897.665044
1253.149529 -1093.843934 895.700693
1253.249479 -1093.481532 893.736342
1253.349429 -1093.119131 891.771991
1253.449379 -1092.756729 889.807640
1253.549330 -1092.394328 887.843289
1253.649280 -1092.031926 885.878938
1253.749230 -1091.669525 883.914587
1253.849180 -1091.307124 881.950236
1253.949130 -1090.944722 879.985885
1254.049080 -1090.582321 878.021534
1254.149030 -1090.219919 876.057183
1254.248980 -1089.857518 874.092832
1254.348931 -1089.495116 872.128480
1254.448881 -1089.132715 870.164129
1254.548831 -1088.770313 868.199778
1254.648781 -1088.407912 866.235427
1254.748731 -1088.045511 864.271076
1254.848681 -1087.683109 862.306725
1254.948631 -1087.320708 860.342374
1255.048581 -1086.958306 858.378023
1255.148532 -1086.595905 856.413672
1255.248482 -1086.233503 854.449321
1255.348432 -1085.871102 852.484970
1255.448382 -1085.508701 850.520619
1255.548332 -1085.146299 848.556267
1255.648282 -1084.783898 846.591916
1255.748232 -1084.421496 844.627565
1255.848183 -1084.059095 842.663214
1255.948133 -1083.696693 840.698863
1256.048083 -1083.334292 838.734512
1256.148033 -1082.971891 836.770161
1256.247983 -1082.609489 834.805810
1256.347933 -1082.247088 832.841459
1256.447883 -1081.884686 830.877108
1256.547833 -1081.522285 828.912757
1256.647784 -1081.159883 826.948406
1256.747734 -1080.797482 824.984054
1256.847684 -1080.435081 823.019703
1256.947634 -1080.072679 821.055352
1257.047584 -1079.710278 819.091001
1257.147534 -1079.347876 817.126650
1257.247484 -1078.985475 815.162299
1257.347434 -1078.623073 813.197948
1257.447385 -1078.260672 811.233597
1257.547335 -1077.898271 809.269246
1257.647285 -1077.535869 807.304895
1257.747235 -1077.173468 805.340544
1257.847185 -1076.811066 803.376193
1257.947135 -1076.448665 801.411841
1258.047085 -1076.086263 799.447490
1258.147035 -1075.723862 797.483139
1258.246986 -1075.361460 795.518788
1258.346936 -1074.999059 793.554437
1258.446886 -1074.636658 791.590086
1258.546836 -1074.274256 789.625735
1258.646786 -1073.911855 787.661384
1258.746736 -1073.549453 785.697033
1258.846686 -1073.187052 783.732682
1258.946636 -1072.824650 781.768331
1259.046587 -1072.462249 779.803980
1259.146537 -1072.099848 777.839628
1259.246487 -1071.737446 775.875277
1259.346437 -1071.375045 773.910926
1259.446387 -1071.012643 771.946575
1259.546337 -1070.650242 769.982224
1259.646287 -1070.287840 768.017873
1259.746237 -1069.925439 766.053522
1259.846188 -1069.563038 764.089171
1259.946138 -1069.200636 762.124820
1260.046088 -1068.838235 760.160469
1260.146038 -1068.475833 758.196118
1260.245988 -1068.113432 756.231767
1260.345938 -1067.751030 754.267416
1260.445888 -1067.388629 752.303064
1260.545839 -1067.026228 750.338713
1260.645789 -1066.663826 748.374362
1260.745739 -1066.301425 746.410011
1260.845689 -1065.939023 744.445660
1260.945639 -1065.576622 742.481309
1261.045589 -1065.214220 740.516958
1261.145539 -1064.851819 738.552607
1261.245489 -1064.489417 736.588256
1261.345440 -1064.127016 734.623905
1261.445390 -1063.764615 732.659554
1261.545340 -1063.402213 730.695203
1261.645290 -1063.039812 728.730851
1261.745240 -1062.677410 726.766500
1261.845190 -1062.315009 724.802149
1261.945140 -1061.952607 722.837798
1262.045090 -1061.590206 720.873447
1262.145041 -1061.227805 718.909096
1262.244991 -1060.865403 716.944745
1262.344941 -1060.503002 714.980394
1262.444891 -1060.140600 713.016043
1262.544841 -1059.778199 711.051692
1262.644791 -1059.415797 709.087341
1262.744741 -1059.053396 707.122990
1262.844691 -1058.690995 705.158638
1262.944642 -1058.328593 703.194287
1263.044592 -1057.966192 701.229936
1263.144542 -1057.603790 699.265585
1263.244492 -1057.241389 697.301234
1263.344442 -1056.878987 695.336883
1263.444392 -1056.516586 693.372532
1263.544342 -1056.154185 691.408181
1263.644292 -1055.791783 689.443830
1263.744243 -1055.429382 687.479479
1263.844193 -1055.066980 685.515128
1263.944143 -1054.704579 683.550777
1264.044093 -1054.342177 681.586425
1264.144043 -1053.979776 679.622074
1264.243993 -1053.617375 677.657723
1264.343943 -1053.254973 675.693372
1264.443893 -1052.892572 673.729021
1264.543844 -1052.530170 671.764670
1264.643794 -1052.167769 669.800319
1264.743744 -1051.805367 667.835968
1264.843694 -1051.442966 665.871617
1264.943644 -1051.080564 663.907266
1265.043594 -1050.718163 661.942915
1265.143544 -1050.355762 659.978564
1265.243495 -1049.993360 658.014212
1265.343445 -1049.630959 656.049861
1265.443395 -1049.268557 654.085510
1265.543345 -1048.906156 652.121159
1265.643295 -1048.543754 650.156808
1265.743245 -1048.181353 648.192457
1265.843195 -1047.818952 646.228106
1265.943145 -1047.456550 644.263755
1266.043096 -1047.094149 642.299404
1266.143046 -1046.731747 640.335053
1266.242996 -1046.369346 638.370702
1266.342946 -1046.006944 636.406351
1266.442896 -1045.644543 634.441999
1266.542846 -1045.282142 632.477648
1266.642796 -1044.919740 630.513297
1266.742746 -1044.557339 628.548946
1266.842697 -1044.194937 626.584595
1266.942647 -1043.832536 624.620244
1267.042597 -1043.470134 622.655893
1267.142547 -1043.107733 620.691542
1267.242497 -1042.745332 618.727191
1267.342447 -1042.382930 616.762840
1267.442397 -1042.020529 614.798489
1267.542347 -1041.658127 612.834138
1267.642298 -1041.295726 610.869787
1267.742248 -1040.933324 608.905435
1267.842198 -1040.570923 606.941084
1267.942148 -1040.208522 604.976733
1268.042098 -1039.846120 603.012382
1268.142048 -1039.483719 601.048031
1268.241998 -1039.121317 599.083680
1268.341948 -1038.758916 597.119329
1268.441899 -1038.396514 595.154978
1268.541849 -1038.034113 593.190627
1268.641799 -1037.671711 591.226276
1268.741749 -1037.309310 589.261925
1268.841699 -1036.946909 587.297574
1268.941649 -1036.584507 585.333222
1269.041599 -1036.222106 583.368871
1269.141549 -1035.859704 581.404520
1269.241500 -1035.497303 579.440169
1269.341450 -1035.134901 577.475818
1269.441400 -1034.772500 575.511467
1269.541350 -1034.410099 573.547116
1269.641300 -1034.047697 571.582765
1269.741250 -1033.685296 569.618414
1269.841200 -1033.322894 567.654063
1269.941151 -1032.960493 565.689712
1270.041101 -1032.598091 563.725361
1270.141051 -1032.235690 561.761009
1270.241001 -1031.873289 559.796658
1270.340951 -1031.510887 557.832307
1270.440901 -1031.148486 555.867956
1270.540851 -1030.786084 553.903605
1270.640801 -1030.423683 551.939254
1270.740752 -1030.061281 549.974903
1270.840702 -1029.698880 548.010552
1270.940652 -1029.336479 546.046201
1271.040602 -1028.974077 544.081850
1271.140552 -1028.611676 542.117499
1271.240502 -1028.249274 540.153148
1271.340452 -1027.886873 538.188796
1271.440402 -1027.524471 536.224445
1271.540353 -1027.162070 534.260094
1271.640303 -1026.799668 532.295743
1271.740253 -1026.437267 530.331392
1271.840203 -1026.074866 528.367041
1271.940153 -1025.712464 526.402690
1272.040103 -1025.350063 524.438339
1272.140053 -1024.987661 522.473988
1272.240003 -1024.625260 520.509637
1272.339954 -1024.262858 518.545286
1272.439904 -1023.900457 516.580935
1272.539854 -1023.538056 514.616583
1272.639804 -1023.175654 512.652232
1272.739754 -1022.813253 510.687881
1272.839704 -1022.450851 508.723530
1272.939654 -1022.088450 506.759179
1273.039604 -1021.726048 504.794828
1273.139555 -1021.363647 502.830477
1273.239505 -1021.001246 500.866126
1273.339455 -1020.638844 498.901775
1273.439405 -1020.276443 496.937424
1273.539355 -1019.914041 494.973073
1273.639305 -1019.551640 493.008722
1273.739255 -1019.189238 491.044371
1273.839205 -1018.826837 489.080019
1273.939156 -1018.464436 487.115668
1274.039106 -1018.102034 485.151317
1274.139056 -1017.739633 483.186966
1274.239006 -1017.377231 481.222615
1274.338956 -1017.014830 479.258264
1274.438906 -1016.652428 477.293913
1274.538856 -1016.290027 475.329562
1274.638806 -1015.927626 473.365211
1274.738757 -1015.565224 471.400860
1274.838707 -1015.202823 469.436509
1274.938657 -1014.840421 467.472158
1275.038607 -1014.478020 465.507806
1275.138557 -1014.115618 463.543455
1275.238507 -1013.753217 461.579104
1275.338457 -1013.390815 459.614753
1275.438408 -1013.028414 457.650402
1275.538358 -1012.666013 455.686051
1275.638308 -1012.303611 453.721700
1275.738258 -1011.941210 451.757349
1275.838208 -1011.578808 449.792998
1275.938158 -1011.216407 447.828647
1276.038108 -1010.854005 445.864296
1276.138058 -1010.491604 443.899945
